ply
    format ascii 1.0
    element vertex 78348
    property float x
    property float y
    property float z
    property uchar red
    property uchar green
    property uchar blue
    end_header
-0.107011 0.054121 -0.545141 21 68 118 
-0.105781 0.054121 -0.545141 22 66 115 
-0.104680 0.054187 -0.545813 22 65 110 
-0.103321 0.054121 -0.545141 21 60 103 
-0.102091 0.054121 -0.545141 22 56 97 
-0.100737 0.054054 -0.544472 22 49 87 
-0.099631 0.054121 -0.545141 23 47 87 
-0.098401 0.054121 -0.545141 18 52 96 
-0.097531 0.054321 -0.547161 18 55 99 
-0.096178 0.054254 -0.546486 19 55 102 
-0.095297 0.054455 -0.548515 19 57 103 
-0.094176 0.054523 -0.549195 16 57 101 
-0.092937 0.054523 -0.549195 17 57 102 
-0.091584 0.054455 -0.548515 17 56 103 
-0.090571 0.054591 -0.549876 19 56 101 
-0.089219 0.054523 -0.549195 17 55 97 
-0.087871 0.054455 -0.548515 16 56 99 
-0.086527 0.054388 -0.547837 18 61 107 
-0.085608 0.054591 -0.549876 19 63 111 
-0.084054 0.054388 -0.547837 21 66 113 
-0.083230 0.054658 -0.550559 22 67 113 
-0.082090 0.054726 -0.551244 23 68 112 
-0.080846 0.054726 -0.551244 25 70 117 
-0.079602 0.054726 -0.551244 23 69 116 
-0.078554 0.054863 -0.552618 23 64 111 
-0.077210 0.054795 -0.551930 21 61 107 
-0.076155 0.054931 -0.553308 22 62 109 
-0.074813 0.054863 -0.552618 21 66 112 
-0.073842 0.055069 -0.554693 22 65 107 
-0.072500 0.055000 -0.554000 22 61 98 
-0.071429 0.055138 -0.555389 25 64 103 
-0.069913 0.054931 -0.553308 20 63 103 
-0.068836 0.055069 -0.554693 20 66 108 
-0.067248 0.054795 -0.551930 20 66 110 
-0.066167 0.054931 -0.553308 20 62 107 
-0.065000 0.055000 -0.554000 20 63 108 
-0.063910 0.055138 -0.555389 18 63 111 
-0.062578 0.055069 -0.554693 20 66 114 
-0.061404 0.055138 -0.555389 22 69 114 
-0.060150 0.055138 -0.555389 24 74 118 
-0.058971 0.055207 -0.556085 23 76 120 
-0.057644 0.055138 -0.555389 24 75 118 
-0.056533 0.055276 -0.556784 23 71 116 
-0.055346 0.055346 -0.557484 22 68 112 
-0.054088 0.055346 -0.557484 23 69 114 
-0.052897 0.055416 -0.558186 23 69 114 
-0.051637 0.055416 -0.558186 24 69 116 
-0.050378 0.055416 -0.558186 20 68 115 
-0.049118 0.055416 -0.558186 20 70 117 
-0.047859 0.055416 -0.558186 21 70 119 
-0.046658 0.055485 -0.558890 24 73 119 
-0.045455 0.055556 -0.559596 25 76 119 
-0.044192 0.055556 -0.559596 24 74 118 
-0.043038 0.055696 -0.561013 23 74 118 
-0.041614 0.055485 -0.558890 23 73 115 
-0.040404 0.055556 -0.559596 22 70 112 
-0.039092 0.055485 -0.558890 23 69 112 
-0.037927 0.055626 -0.560303 21 68 109 
-0.036709 0.055696 -0.561013 22 66 108 
-0.035533 0.055838 -0.562437 21 63 109 
-0.034177 0.055696 -0.561013 20 62 106 
-0.032953 0.055767 -0.561724 19 60 106 
-0.031646 0.055696 -0.561013 19 59 108 
-0.030380 0.055696 -0.561013 17 60 108 
-0.029151 0.055767 -0.561724 18 61 107 
-0.028025 0.056051 -0.564586 19 58 101 
-0.026923 0.056410 -0.568205 19 57 99 
-0.025445 0.055980 -0.563868 19 54 97 
-0.024173 0.055980 -0.563868 21 51 95 
-0.022901 0.055980 -0.563868 20 50 93 
-0.021656 0.056051 -0.564586 19 48 90 
-0.020382 0.056051 -0.564586 17 48 90 
-0.019157 0.056194 -0.566028 16 48 90 
-0.017880 0.056194 -0.566028 15 49 90 
-0.016603 0.056194 -0.566028 18 52 96 
-0.015345 0.056266 -0.566752 17 52 96 
-0.014085 0.056338 -0.567478 18 50 92 
-0.012804 0.056338 -0.567478 16 47 90 
-0.011568 0.056555 -0.569666 18 54 98 
-0.010270 0.056483 -0.568935 18 57 101 
-0.008986 0.056483 -0.568935 17 55 99 
-0.007712 0.056555 -0.569666 19 50 90 
-0.006427 0.056555 -0.569666 16 46 85 
-0.005135 0.056483 -0.568935 15 49 90 
-0.003856 0.056555 -0.569666 18 53 96 
-0.002581 0.056774 -0.571871 20 54 98 
-0.001292 0.056848 -0.572610 20 54 98 
0.000000 0.056848 -0.572610 20 52 94 
0.001292 0.056848 -0.572610 19 53 91 
0.002591 0.056995 -0.574093 19 51 89 
0.003881 0.056921 -0.573351 20 50 90 
0.005181 0.056995 -0.574093 18 51 92 
0.006494 0.057143 -0.575584 19 55 99 
0.007792 0.057143 -0.575584 21 56 100 
0.009103 0.057217 -0.576333 20 55 98 
0.010390 0.057143 -0.575584 18 52 95 
0.011673 0.057069 -0.574838 20 50 92 
0.012970 0.057069 -0.574838 21 50 88 
0.014304 0.057217 -0.576333 21 49 86 
0.015645 0.057366 -0.577836 20 47 79 
0.016971 0.057441 -0.578590 19 42 69 
0.018229 0.057292 -0.577083 21 48 81 
0.021767 0.056338 -0.567478 100 112 106 
0.022785 0.055696 -0.561013 102 113 107 
0.104762 0.209524 -2.110476 105 115 108 
0.107981 0.206573 -2.080751 106 115 110 
0.111628 0.204651 -2.061395 106 116 108 
0.119266 0.201835 -2.033028 94 105 100 
0.121622 0.198198 -1.996396 87 98 93 
0.126126 0.198198 -1.996396 90 100 95 
0.130045 0.197309 -1.987444 96 104 100 
0.136364 0.200000 -2.014545 96 104 100 
0.137778 0.195556 -1.969778 92 100 97 
0.144144 0.198198 -1.996396 89 99 95 
0.147982 0.197309 -1.987444 90 100 95 
0.149123 0.192982 -1.943860 91 99 96 
0.157658 0.198198 -1.996396 87 97 94 
0.159292 0.194690 -1.961062 77 86 85 
0.166667 0.198198 -1.996396 85 93 91 
0.168889 0.195556 -1.969778 93 104 100 
0.174107 0.196429 -1.978572 93 102 97 
0.174672 0.192140 -1.935371 87 96 91 
0.118750 0.091667 -0.923333 31 40 66 
0.119097 0.090349 -0.910062 27 38 66 
0.120902 0.090164 -0.908197 25 39 67 
0.123203 0.090349 -0.910062 25 38 66 
0.124236 0.089613 -0.902648 28 38 68 
0.132383 0.089613 -0.902648 27 39 66 
0.136456 0.089613 -0.902648 26 34 64 
0.137931 0.089249 -0.898986 24 34 65 
0.140244 0.089431 -0.900813 23 33 63 
0.140845 0.088531 -0.891751 24 33 64 
0.143434 0.088889 -0.895354 25 36 65 
0.144869 0.088531 -0.891751 59 69 88 
0.147177 0.088710 -0.893548 53 65 85 
0.148594 0.088353 -0.889960 25 35 66 
0.151515 0.088889 -0.895354 22 33 66 
0.152610 0.088353 -0.889960 20 33 65 
0.154000 0.088000 -0.886400 22 32 62 
0.156627 0.088353 -0.889960 28 36 62 
0.158635 0.088353 -0.889960 65 75 90 
0.160321 0.088176 -0.888176 67 79 95 
0.162325 0.088176 -0.888176 33 47 72 
0.164659 0.088353 -0.889960 30 43 75 
0.167002 0.088531 -0.891751 30 44 75 
0.169014 0.088531 -0.891751 65 76 95 
0.171717 0.088889 -0.895354 83 95 108 
0.173387 0.088710 -0.893548 44 59 81 
0.177189 0.089613 -0.902648 39 54 80 
0.178138 0.089069 -0.897166 42 58 83 
0.180527 0.089249 -0.898986 53 67 89 
0.183299 0.089613 -0.902648 73 86 102 
0.186475 0.090164 -0.908197 88 100 111 
0.187755 0.089796 -0.904490 88 101 110 
0.388235 0.172549 -1.738039 36 59 66 
0.386100 0.169884 -1.711197 39 62 69 
0.392308 0.169231 -1.704615 29 40 40 
0.394636 0.168582 -1.698084 29 35 30 
0.392453 0.166038 -1.672453 34 38 33 
0.404580 0.167939 -1.691603 62 65 55 
0.441065 0.167300 -1.685171 37 40 32 
0.420863 0.158273 -1.594245 28 31 26 
0.452471 0.167300 -1.685171 14 20 16 
0.456274 0.167300 -1.685171 13 17 13 
0.467181 0.169884 -1.711197 15 18 16 
0.491935 0.177419 -1.787097 15 18 17 
0.502041 0.179592 -1.808980 16 20 19 
0.508197 0.180328 -1.816393 21 27 22 
0.467577 0.150171 -1.512628 136 164 167 
0.475862 0.151724 -1.528276 144 169 173 
0.482639 0.152778 -1.538889 149 172 176 
0.489510 0.153846 -1.549650 149 174 177 
0.500000 0.156028 -1.571631 152 177 179 
0.507143 0.157143 -1.582857 157 180 182 
0.512545 0.157706 -1.588531 160 182 186 
0.516129 0.157706 -1.588531 162 185 188 
0.517857 0.157143 -1.582857 163 186 190 
0.519573 0.156584 -1.577224 164 187 189 
0.523132 0.156584 -1.577224 167 189 191 
0.526690 0.156584 -1.577224 167 188 191 
0.528369 0.156028 -1.571631 162 185 188 
0.531915 0.156028 -1.571631 156 182 184 
0.583333 0.166667 -1.678788 125 159 164 
0.754717 0.207547 -2.090566 39 46 46 
0.748837 0.204651 -2.061395 35 44 45 
0.750000 0.203704 -2.051852 34 43 44 
0.754630 0.203704 -2.051852 36 44 44 
0.766355 0.205607 -2.071028 35 44 44 
0.771028 0.205607 -2.071028 36 45 43 
0.772093 0.204651 -2.061395 39 47 45 
0.784038 0.206573 -2.080751 40 49 47 
0.803828 0.210526 -2.120574 43 50 48 
0.816425 0.212560 -2.141063 45 51 50 
0.837438 0.216749 -2.183251 46 54 52 
0.876923 0.225641 -2.272820 50 55 55 
0.851485 0.217822 -2.194059 54 57 59 
0.852217 0.216749 -2.183251 55 61 60 
0.836538 0.211538 -2.130769 59 63 62 
0.791855 0.199095 -2.005430 62 66 65 
0.818605 0.204651 -2.061395 63 70 67 
0.827103 0.205607 -2.071028 65 73 70 
0.824074 0.203704 -2.051852 69 74 73 
0.828704 0.203704 -2.051852 71 75 74 
0.837209 0.204651 -2.061395 70 76 75 
0.746939 0.179592 -1.808980 68 77 73 
0.741935 0.177419 -1.787097 68 77 74 
0.742972 0.176707 -1.779920 70 76 74 
0.726562 0.171875 -1.731250 61 69 70 
0.739130 0.173913 -1.751779 30 38 42 
0.746032 0.174603 -1.758730 14 19 17 
0.752941 0.172549 -1.738039 34 37 28 
0.753906 0.171875 -1.731250 39 41 33 
0.751938 0.170543 -1.717829 41 43 37 
0.761719 0.171875 -1.731250 35 38 34 
0.774704 0.173913 -1.751779 27 32 30 
0.778656 0.173913 -1.751779 18 26 21 
0.779528 0.173228 -1.744882 28 49 48 
0.796000 0.176000 -1.772800 48 94 109 
0.774809 0.167939 -1.691603 107 166 190 
0.778626 0.167939 -1.691603 110 173 200 
0.779468 0.167300 -1.685171 99 171 199 
0.789272 0.168582 -1.698084 90 159 191 
0.813688 0.167300 -1.685171 160 184 192 
0.817491 0.167300 -1.685171 167 189 195 
0.818182 0.166667 -1.678788 171 193 199 
0.821970 0.166667 -1.678788 173 196 202 
0.832061 0.167939 -1.691603 173 197 202 
0.845560 0.169884 -1.711197 172 197 202 
0.852713 0.170543 -1.717829 172 195 202 
0.856589 0.170543 -1.717829 168 193 200 
0.847328 0.167939 -1.691603 144 168 181 
0.841509 0.166038 -1.672453 99 113 119 
0.835821 0.164179 -1.653731 88 94 94 
0.833333 0.162963 -1.641482 85 95 92 
0.833948 0.162362 -1.635424 86 94 92 
1.101942 0.213592 -2.151456 85 94 91 
1.090909 0.210526 -2.120574 87 94 93 
1.111650 0.213592 -2.151456 90 95 94 
1.111111 0.212560 -2.141063 90 95 94 
1.115942 0.212560 -2.141063 91 96 93 
1.210784 0.215686 -2.172549 84 92 91 
1.169811 0.207547 -2.090566 86 92 91 
1.220588 0.215686 -2.172549 86 91 90 
1.173709 0.206573 -2.080751 83 89 88 
1.212560 0.212560 -2.141063 80 88 87 
1.200000 0.209524 -2.110476 66 73 74 
1.222222 0.212560 -2.141063 71 75 74 
1.221154 0.211538 -2.130769 79 85 84 
1.256158 0.216749 -2.183251 78 85 83 
1.224880 0.210526 -2.120574 78 84 83 
1.345550 0.230366 -2.320419 78 86 85 
1.350785 0.230366 -2.320419 80 86 85 
1.328205 0.225641 -2.272820 79 86 86 
1.300000 0.220000 -2.216000 91 96 92 
1.331633 0.224490 -2.261225 135 139 133 
1.290640 0.216749 -2.183251 153 159 156 
1.263158 0.210526 -2.120574 149 160 158 
-1.370370 0.265432 -2.735803 198 202 197 
-1.364197 0.265432 -2.735803 199 203 197 
-1.366460 0.267081 -2.752795 198 201 196 
-1.351852 0.265432 -2.735803 195 198 194 
-1.345679 0.265432 -2.735803 194 198 195 
-1.347826 0.267081 -2.752795 197 199 196 
-1.319018 0.263804 -2.719018 199 201 198 
-0.316327 0.073129 -0.753742 207 209 204 
-0.314092 0.073005 -0.752462 207 209 205 
-0.309764 0.072391 -0.746128 204 207 201 
-0.512605 0.120448 -1.241457 165 170 172 
-0.512676 0.121127 -1.248451 101 132 158 
-0.180425 0.050708 -0.522642 70 112 149 
-0.179245 0.050708 -0.522642 65 102 134 
-0.178066 0.050708 -0.522642 42 71 91 
-0.176887 0.050708 -0.522642 21 46 68 
-0.175708 0.050708 -0.522642 22 43 65 
-0.174528 0.050708 -0.522642 22 47 77 
-0.176259 0.051559 -0.531415 24 62 105 
-0.172170 0.050708 -0.522642 23 66 113 
-0.170991 0.050708 -0.522642 23 72 118 
-0.169811 0.050708 -0.522642 24 77 121 
-0.168632 0.050708 -0.522642 24 78 122 
-0.167453 0.050708 -0.522642 24 79 123 
-0.166274 0.050708 -0.522642 24 78 122 
-0.165094 0.050708 -0.522642 23 75 121 
-0.165673 0.051251 -0.528248 22 72 120 
-0.164678 0.051313 -0.528878 20 70 116 
-0.163484 0.051313 -0.528878 19 67 113 
-0.162291 0.051313 -0.528878 21 68 117 
-0.161483 0.051435 -0.530144 24 74 123 
-0.160287 0.051435 -0.530144 24 77 124 
-0.158901 0.051374 -0.529510 23 77 124 
-0.158084 0.051497 -0.530778 21 76 123 
-0.157263 0.051621 -0.532053 23 73 120 
-0.155502 0.051435 -0.530144 22 74 120 
-0.154862 0.051621 -0.532053 25 76 125 
-0.153293 0.051497 -0.530778 25 77 126 
-0.152096 0.051497 -0.530778 23 76 123 
-0.151261 0.051621 -0.532053 20 72 117 
-0.150060 0.051621 -0.532053 19 69 112 
-0.148503 0.051497 -0.530778 23 72 115 
-0.148014 0.051745 -0.533333 24 73 119 
-0.146811 0.051745 -0.533333 24 78 125 
-0.145084 0.051559 -0.531415 25 79 126 
-0.144058 0.051621 -0.532053 26 76 127 
-0.143546 0.051870 -0.534620 25 75 125 
-0.142169 0.051807 -0.533976 24 76 124 
-0.141304 0.051932 -0.535266 23 76 124 
-0.139928 0.051870 -0.534620 24 73 121 
-0.139057 0.051995 -0.535913 22 72 120 
-0.137515 0.051870 -0.534620 20 70 118 
-0.136804 0.052058 -0.536562 20 69 118 
-0.135593 0.052058 -0.536562 23 72 120 
-0.134709 0.052184 -0.537864 23 71 116 
-0.133495 0.052184 -0.537864 21 69 115 
-0.132282 0.052184 -0.537864 21 68 112 
-0.130751 0.052058 -0.536562 22 68 113 
-0.129540 0.052058 -0.536562 25 67 115 
-0.128485 0.052121 -0.537212 25 66 113 
-0.127427 0.052184 -0.537864 23 65 111 
-0.126367 0.052248 -0.538518 19 64 116 
-0.125000 0.052184 -0.537864 19 67 118 
-0.123937 0.052248 -0.538518 19 71 120 
-0.122871 0.052311 -0.539173 21 72 120 
-0.121507 0.052248 -0.538518 25 75 124 
-0.120585 0.052375 -0.539829 26 76 126 
-0.119658 0.052503 -0.541148 24 74 122 
-0.118149 0.052375 -0.539829 23 71 117 
-0.117503 0.052632 -0.542472 22 69 116 
-0.115995 0.052503 -0.541148 22 65 109 
-0.114774 0.052503 -0.541148 21 66 109 
-0.113831 0.052632 -0.542472 21 68 114 
-0.112883 0.052761 -0.543804 22 68 117 
-0.111383 0.052632 -0.542472 22 67 112 
-0.110429 0.052761 -0.543804 22 61 106 
-0.109202 0.052761 -0.543804 19 60 105 
-0.108108 0.052826 -0.544472 19 60 103 
-0.107011 0.052891 -0.545141 21 66 110 
-0.105781 0.052891 -0.545141 22 67 111 
-0.104809 0.053021 -0.546486 21 68 113 
-0.103448 0.052956 -0.545813 22 67 112 
-0.102217 0.052956 -0.545813 23 66 112 
-0.100861 0.052891 -0.545141 23 63 107 
-0.099877 0.053021 -0.546486 21 60 103 
-0.098522 0.052956 -0.545813 21 60 104 
-0.097531 0.053086 -0.547161 19 59 104 
-0.096178 0.053021 -0.546486 19 59 107 
-0.094945 0.053021 -0.546486 18 60 106 
-0.093943 0.053152 -0.547837 17 59 105 
-0.092937 0.053284 -0.549195 20 61 109 
-0.091584 0.053218 -0.548515 19 61 109 
-0.090571 0.053350 -0.549876 19 59 106 
-0.089219 0.053284 -0.549195 20 56 99 
-0.087980 0.053284 -0.549195 20 54 98 
-0.086527 0.053152 -0.547837 18 58 104 
-0.085714 0.053416 -0.550559 19 59 105 
-0.084054 0.053152 -0.547837 22 60 106 
-0.083230 0.053416 -0.550559 21 61 108 
-0.082090 0.053483 -0.551244 23 64 110 
-0.080846 0.053483 -0.551244 23 63 107 
-0.079602 0.053483 -0.551244 24 61 105 
-0.078456 0.053549 -0.551930 24 60 105 
-0.077114 0.053483 -0.551244 20 60 105 
-0.076060 0.053616 -0.552618 21 57 101 
-0.074813 0.053616 -0.552618 20 57 101 
-0.073750 0.053750 -0.554000 19 57 97 
-0.072500 0.053750 -0.554000 21 52 87 
-0.071429 0.053885 -0.555389 23 54 91 
-0.069913 0.053683 -0.553308 19 55 94 
-0.068664 0.053683 -0.553308 21 58 96 
-0.067248 0.053549 -0.551930 23 60 100 
-0.066250 0.053750 -0.554000 20 59 103 
-0.065081 0.053817 -0.554693 19 58 106 
-0.063910 0.053885 -0.555389 19 62 110 
-0.062657 0.053885 -0.555389 19 67 115 
-0.061481 0.053952 -0.556085 21 69 115 
-0.060150 0.053885 -0.555389 25 72 117 
-0.058971 0.053952 -0.556085 24 73 118 
-0.057644 0.053885 -0.555389 22 72 117 
-0.056604 0.054088 -0.557484 25 71 114 
-0.055416 0.054156 -0.558186 23 65 108 
-0.054224 0.054224 -0.558890 23 64 108 
-0.053030 0.054293 -0.559596 21 65 112 
-0.051833 0.054362 -0.560303 20 67 114 
-0.050569 0.054362 -0.560303 20 68 115 
-0.049242 0.054293 -0.559596 21 70 116 
-0.048101 0.054430 -0.561013 24 71 114 
-0.046776 0.054362 -0.560303 22 72 114 
-0.045512 0.054362 -0.560303 23 72 116 
-0.044248 0.054362 -0.560303 23 73 117 
-0.043093 0.054499 -0.561724 23 72 115 
-0.041667 0.054293 -0.559596 21 71 114 
-0.040455 0.054362 -0.560303 21 68 112 
-0.039191 0.054362 -0.560303 22 66 110 
-0.037927 0.054362 -0.560303 23 66 110 
-0.036662 0.054362 -0.560303 21 67 110 
-0.035488 0.054499 -0.561724 22 68 113 
-0.034091 0.054293 -0.559596 22 69 115 
-0.032953 0.054499 -0.561724 21 68 113 
-0.031686 0.054499 -0.561724 20 64 111 
-0.030534 0.054707 -0.563868 20 64 111 
-0.029374 0.054917 -0.566028 18 66 112 
-0.028133 0.054987 -0.566752 19 67 112 
-0.026958 0.055199 -0.568935 19 65 107 
-0.025445 0.054707 -0.563868 21 62 106 
-0.024204 0.054777 -0.564586 21 60 104 
-0.022901 0.054707 -0.563868 20 59 103 
-0.021684 0.054847 -0.565306 17 57 99 
-0.020382 0.054777 -0.564586 18 57 98 
-0.019182 0.054987 -0.566752 19 54 96 
-0.017880 0.054917 -0.566028 19 50 93 
-0.016603 0.054917 -0.566028 17 49 93 
-0.015345 0.054987 -0.566752 17 52 98 
-0.014085 0.055058 -0.567478 20 55 99 
-0.012804 0.055058 -0.567478 18 50 92 
-0.011553 0.055199 -0.568935 17 52 95 
-0.010270 0.055199 -0.568935 18 55 98 
-0.008986 0.055199 -0.568935 19 51 93 
-0.007712 0.055270 -0.569666 18 47 84 
-0.006435 0.055341 -0.570399 17 46 84 
-0.005141 0.055270 -0.569666 15 46 88 
-0.003861 0.055341 -0.570399 17 49 95 
-0.002581 0.055484 -0.571871 17 54 96 
-0.001292 0.055556 -0.572610 18 54 97 
0.000000 0.055556 -0.572610 18 52 95 
0.001292 0.055556 -0.572610 20 52 94 
0.002587 0.055627 -0.573351 19 51 92 
0.003881 0.055627 -0.573351 19 48 87 
0.005181 0.055699 -0.574093 20 48 86 
0.006494 0.055844 -0.575584 20 51 92 
0.007792 0.055844 -0.575584 19 51 93 
0.009115 0.055990 -0.577083 19 51 92 
0.010403 0.055917 -0.576333 18 47 88 
0.011673 0.055772 -0.574838 18 46 88 
0.012970 0.055772 -0.574838 20 48 90 
0.014304 0.055917 -0.576333 20 49 89 
0.015645 0.056063 -0.577836 19 48 83 
0.016971 0.056136 -0.578590 20 43 72 
0.018229 0.055990 -0.577083 21 49 83 
0.019481 0.055844 -0.575584 41 66 86 
0.020699 0.055627 -0.573351 93 106 105 
0.021795 0.055128 -0.568205 101 112 107 
0.022785 0.054430 -0.561013 103 112 106 
0.103286 0.201878 -2.080751 103 115 107 
0.106977 0.200000 -2.061395 103 114 107 
0.111111 0.199074 -2.051852 105 114 108 
0.118721 0.196347 -2.023744 93 105 99 
0.121622 0.193694 -1.996396 88 99 91 
0.126126 0.193694 -1.996396 91 100 93 
0.130045 0.192825 -1.987444 97 105 99 
0.136364 0.195455 -2.014545 96 105 100 
0.138393 0.191964 -1.978572 90 101 98 
0.144144 0.193694 -1.996396 88 99 95 
0.147982 0.192825 -1.987444 90 99 96 
0.149123 0.188596 -1.943860 91 99 95 
0.157658 0.193694 -1.996396 89 98 94 
0.158590 0.189427 -1.952423 77 85 83 
0.165919 0.192825 -1.987444 86 91 86 
0.168889 0.191111 -1.969778 94 103 97 
0.173333 0.191111 -1.969778 89 100 97 
0.173160 0.186147 -1.918615 84 96 92 
0.118998 0.089770 -0.925261 50 60 81 
0.119097 0.088296 -0.910062 47 59 79 
0.121150 0.088296 -0.910062 45 59 80 
0.123203 0.088296 -0.910062 43 56 77 
0.124236 0.087576 -0.902648 37 49 74 
0.129098 0.088115 -0.908197 50 60 81 
0.132653 0.087755 -0.904490 34 45 71 
0.134969 0.087935 -0.906339 28 39 66 
0.136456 0.087576 -0.902648 26 37 65 
0.137374 0.086869 -0.895354 25 35 66 
0.139959 0.087221 -0.898986 24 36 65 
0.140845 0.086519 -0.891751 28 41 67 
0.143145 0.086694 -0.893548 42 53 76 
0.144578 0.086345 -0.889960 69 79 93 
0.146881 0.086519 -0.891751 60 71 89 
0.148297 0.086172 -0.888176 30 41 68 
0.151210 0.086694 -0.893548 25 36 65 
0.152305 0.086172 -0.888176 24 36 65 
0.153693 0.085828 -0.884631 24 35 62 
0.156000 0.086000 -0.886400 27 39 62 
0.158317 0.086172 -0.888176 56 68 85 
0.159681 0.085828 -0.884631 73 88 100 
0.162651 0.086345 -0.889960 64 82 98 
0.164659 0.086345 -0.889960 60 75 96 
0.167339 0.086694 -0.893548 64 77 97 
0.169014 0.086519 -0.891751 91 103 113 
0.172414 0.087221 -0.898986 108 121 129 
0.173387 0.086694 -0.893548 87 101 113 
0.177189 0.087576 -0.902648 73 87 101 
0.178862 0.087398 -0.900813 79 92 104 
0.181263 0.087576 -0.902648 83 94 106 
0.183299 0.087576 -0.902648 75 87 100 
0.187629 0.088660 -0.913814 73 84 98 
0.188525 0.088115 -0.908197 64 75 93 
0.388235 0.168627 -1.738039 37 57 66 
0.386100 0.166023 -1.711197 41 62 69 
0.390805 0.164751 -1.698084 31 42 43 
0.392453 0.162264 -1.672453 33 38 33 
0.393258 0.161049 -1.659925 43 46 40 
0.442748 0.164122 -1.691603 36 39 33 
0.420863 0.154676 -1.594245 27 31 28 
0.450758 0.162879 -1.678788 17 19 16 
0.454545 0.162879 -1.678788 14 17 15 
0.489960 0.172691 -1.779920 15 19 17 
0.500000 0.174797 -1.801626 16 20 19 
0.504065 0.174797 -1.801626 20 25 23 
0.467577 0.146758 -1.512628 134 162 167 
0.474227 0.147766 -1.523024 141 168 170 
0.482639 0.149306 -1.538889 148 172 176 
0.487805 0.149826 -1.544251 150 174 178 
0.496479 0.151408 -1.560563 152 177 180 
0.503546 0.152482 -1.571631 157 180 182 
0.510714 0.153571 -1.582857 160 182 184 
0.514286 0.153571 -1.582857 163 184 186 
0.516014 0.153025 -1.577224 166 187 189 
0.515901 0.151943 -1.566078 166 188 191 
0.521277 0.152482 -1.571631 164 187 189 
0.524823 0.152482 -1.571631 162 187 187 
0.526502 0.151943 -1.566078 161 186 186 
0.530035 0.151943 -1.566078 157 181 184 
0.583333 0.162879 -1.678788 129 160 165 
0.758294 0.203791 -2.100474 41 46 48 
0.748837 0.200000 -2.061395 35 44 43 
0.753488 0.200000 -2.061395 34 43 42 
0.761682 0.200935 -2.071028 36 44 45 
0.773585 0.202830 -2.090566 37 45 45 
0.774648 0.201878 -2.080751 38 45 45 
0.775701 0.200935 -2.071028 40 47 47 
0.787736 0.202830 -2.090566 42 49 48 
0.811594 0.207729 -2.141063 43 50 49 
0.816425 0.207729 -2.141063 45 50 50 
0.841584 0.212871 -2.194059 46 53 51 
0.872449 0.219388 -2.261225 49 55 54 
0.855721 0.213930 -2.204975 51 57 57 
0.852217 0.211823 -2.183251 55 61 59 
0.840580 0.207729 -2.141063 58 63 61 
0.799087 0.196347 -2.023744 60 66 63 
0.818605 0.200000 -2.061395 61 69 66 
0.827103 0.200935 -2.071028 65 72 70 
0.824074 0.199074 -2.051852 69 74 72 
0.828704 0.199074 -2.051852 68 76 72 
0.837209 0.200000 -2.061395 68 76 74 
0.750000 0.176230 -1.816393 67 76 74 
0.751020 0.175510 -1.808980 68 76 74 
0.748988 0.174089 -1.794332 71 77 75 
0.738095 0.170635 -1.758730 66 73 73 
0.736220 0.169291 -1.744882 40 49 50 
0.744094 0.169291 -1.744882 15 18 16 
0.752941 0.168627 -1.738039 30 34 27 
0.753906 0.167969 -1.731250 38 39 31 
0.749035 0.166023 -1.711197 41 43 35 
0.755814 0.166667 -1.717829 37 39 34 
0.771654 0.169291 -1.744882 32 35 30 
0.778656 0.169960 -1.751779 21 27 25 
0.776471 0.168627 -1.738039 24 36 35 
0.789683 0.170635 -1.758730 41 79 94 
0.771863 0.163498 -1.685171 101 161 185 
0.778626 0.164122 -1.691603 110 171 196 
0.779468 0.163498 -1.685171 105 172 198 
0.783270 0.163498 -1.685171 94 165 196 
0.810606 0.162879 -1.678788 158 182 190 
0.817491 0.163498 -1.685171 164 187 194 
0.818182 0.162879 -1.678788 169 192 199 
0.821970 0.162879 -1.678788 173 196 201 
0.828897 0.163498 -1.685171 175 197 203 
0.842308 0.165385 -1.704615 175 198 203 
0.849421 0.166023 -1.711197 173 197 203 
0.856589 0.166667 -1.717829 170 194 200 
0.850575 0.164751 -1.698084 155 180 191 
0.841509 0.162264 -1.672453 108 128 139 
0.835821 0.160448 -1.653731 87 95 97 
0.830258 0.158672 -1.635424 88 92 93 
0.827839 0.157509 -1.623443 86 93 91 
1.096618 0.207729 -2.141063 85 93 90 
1.090909 0.205742 -2.120574 86 93 91 
1.117073 0.209756 -2.161951 90 94 93 
1.116505 0.208738 -2.151456 89 96 94 
1.110577 0.206731 -2.130769 89 95 94 
1.156863 0.210784 -2.172549 88 96 94 
1.101382 0.198157 -2.042396 87 94 92 
1.210784 0.210784 -2.172549 85 91 90 
1.169811 0.202830 -2.090566 85 92 89 
1.220588 0.210784 -2.172549 82 91 89 
1.173709 0.201878 -2.080751 81 89 87 
1.212560 0.207729 -2.141063 78 87 86 
1.200000 0.204762 -2.110476 67 73 74 
1.222222 0.207729 -2.141063 71 75 74 
1.215311 0.205742 -2.120574 78 86 84 
1.224880 0.205742 -2.120574 79 85 84 
1.345550 0.225131 -2.320419 77 85 84 
1.350785 0.225131 -2.320419 79 86 85 
1.321429 0.219388 -2.261225 81 86 85 
1.293532 0.213930 -2.204975 91 95 91 
1.324873 0.218274 -2.249746 133 138 132 
1.284314 0.210784 -2.172549 148 158 155 
1.252381 0.204762 -2.110476 151 159 157 
1.257143 0.204762 -2.110476 150 159 157 
-1.361963 0.257669 -2.719018 195 199 195 
-1.355828 0.257669 -2.719018 194 199 193 
-1.358025 0.259259 -2.735803 193 197 192 
-1.360248 0.260870 -2.752795 191 194 192 
-1.354037 0.260870 -2.752795 189 194 192 
-1.347826 0.260870 -2.752795 190 195 192 
-1.327160 0.259259 -2.735803 194 198 193 
-0.316865 0.071550 -0.755026 206 207 203 
-0.314626 0.071429 -0.753742 206 208 203 
-0.309764 0.070707 -0.746128 203 205 199 
-0.509749 0.116992 -1.234540 161 167 170 
-0.514124 0.118644 -1.251977 98 133 159 
-0.180425 0.049528 -0.522642 63 108 145 
-0.179245 0.049528 -0.522642 61 99 131 
-0.179762 0.050000 -0.527619 42 68 88 
-0.176887 0.049528 -0.522642 23 44 67 
-0.175708 0.049528 -0.522642 22 43 66 
-0.174528 0.049528 -0.522642 24 51 84 
-0.176683 0.050481 -0.532692 26 69 112 
-0.172170 0.049528 -0.522642 24 72 114 
-0.170991 0.049528 -0.522642 26 75 118 
-0.169811 0.049528 -0.522642 24 76 117 
-0.168632 0.049528 -0.522642 22 76 120 
-0.167453 0.049528 -0.522642 24 76 119 
-0.166274 0.049528 -0.522642 22 74 117 
-0.165094 0.049528 -0.522642 20 72 118 
-0.165673 0.050060 -0.528248 21 70 120 
-0.164875 0.050179 -0.529510 22 72 121 
-0.163484 0.050119 -0.528878 25 73 123 
-0.162291 0.050119 -0.528878 24 74 125 
-0.161483 0.050239 -0.530144 22 77 126 
-0.160287 0.050239 -0.530144 22 80 129 
-0.158901 0.050179 -0.529510 22 80 128 
-0.158084 0.050299 -0.530778 22 78 126 
-0.157074 0.050360 -0.531415 23 76 124 
-0.155502 0.050239 -0.530144 22 76 121 
-0.154862 0.050420 -0.532053 21 76 121 
-0.153110 0.050239 -0.530144 21 76 124 
-0.152096 0.050299 -0.530778 23 74 121 
-0.151261 0.050420 -0.532053 25 69 113 
-0.150060 0.050420 -0.532053 21 64 105 
-0.148503 0.050299 -0.530778 24 68 111 
-0.148193 0.050602 -0.533976 23 73 118 
-0.146811 0.050542 -0.533333 23 76 122 
-0.145084 0.050360 -0.531415 24 76 122 
-0.144231 0.050481 -0.532692 25 76 124 
-0.143720 0.050725 -0.535266 26 77 127 
-0.142169 0.050602 -0.533976 27 78 128 
-0.141304 0.050725 -0.535266 24 75 124 
-0.140097 0.050725 -0.535266 24 74 120 
-0.139057 0.050786 -0.535913 22 75 121 
-0.137848 0.050786 -0.535913 22 73 120 
-0.136970 0.050909 -0.537212 19 74 124 
-0.135758 0.050909 -0.537212 19 76 124 
-0.134872 0.051033 -0.538518 20 76 122 
-0.133657 0.051033 -0.538518 21 75 122 
-0.132282 0.050971 -0.537864 24 74 121 
-0.130909 0.050909 -0.537212 23 73 120 
-0.129697 0.050909 -0.537212 23 70 118 
-0.128641 0.050971 -0.537864 22 66 115 
-0.127582 0.051033 -0.538518 19 66 115 
-0.126367 0.051033 -0.538518 19 68 118 
-0.125152 0.051033 -0.538518 19 69 120 
-0.124088 0.051095 -0.539173 24 74 124 
-0.123021 0.051157 -0.539829 23 74 123 
-0.121803 0.051157 -0.539829 24 75 125 
-0.120879 0.051282 -0.541148 23 68 117 
-0.119804 0.051345 -0.541809 21 67 115 
-0.118293 0.051220 -0.540488 17 61 105 
-0.117503 0.051408 -0.542472 18 55 97 
-0.116137 0.051345 -0.541809 19 51 96 
-0.114774 0.051282 -0.541148 19 57 103 
-0.113831 0.051408 -0.542472 19 65 113 
-0.113022 0.051597 -0.544472 20 68 115 
-0.111520 0.051471 -0.543137 22 67 113 
-0.110429 0.051534 -0.543804 21 64 110 
-0.109202 0.051534 -0.543804 22 64 109 
-0.108108 0.051597 -0.544472 23 61 105 
-0.107011 0.051661 -0.545141 22 67 112 
-0.105781 0.051661 -0.545141 22 68 110 
-0.104938 0.051852 -0.547161 23 65 108 
-0.103704 0.051852 -0.547161 22 67 110 
-0.102469 0.051852 -0.547161 24 66 111 
-0.101110 0.051788 -0.546486 22 64 108 
-0.100000 0.051852 -0.547161 21 63 105 
-0.098644 0.051788 -0.546486 23 64 108 
-0.097531 0.051852 -0.547161 22 63 109 
-0.096178 0.051788 -0.546486 18 62 111 
-0.094711 0.051661 -0.545141 19 63 115 
-0.093711 0.051788 -0.546486 18 63 114 
-0.092937 0.052045 -0.549195 22 67 114 
-0.091584 0.051980 -0.548515 22 68 115 
-0.090571 0.052109 -0.549876 20 67 116 
-0.089330 0.052109 -0.549876 20 65 110 
-0.088089 0.052109 -0.549876 20 65 110 
-0.086634 0.051980 -0.548515 22 67 113 
-0.085714 0.052174 -0.550559 22 66 114 
-0.083951 0.051852 -0.547161 22 65 114 
-0.083024 0.052045 -0.549195 23 65 112 
-0.081988 0.052174 -0.550559 25 63 110 
-0.080745 0.052174 -0.550559 24 60 106 
-0.079503 0.052174 -0.550559 21 56 102 
-0.078358 0.052239 -0.551244 21 55 101 
-0.077019 0.052174 -0.550559 21 55 103 
-0.075965 0.052304 -0.551930 20 56 100 
-0.074720 0.052304 -0.551930 21 57 101 
-0.073658 0.052434 -0.553308 19 57 100 
-0.072500 0.052500 -0.554000 22 55 96 
-0.071429 0.052632 -0.555389 22 53 92 
-0.070000 0.052500 -0.554000 22 53 92 
-0.068664 0.052434 -0.553308 21 51 92 
-0.067332 0.052369 -0.552618 21 51 90 
-0.066333 0.052566 -0.554693 22 50 93 
-0.065081 0.052566 -0.554693 17 48 91 
-0.063910 0.052632 -0.555389 19 54 100 
-0.062735 0.052698 -0.556085 19 60 106 
-0.061558 0.052764 -0.556784 19 60 104 
-0.060150 0.052632 -0.555389 22 60 105 
-0.058971 0.052698 -0.556085 23 62 105 
-0.057716 0.052698 -0.556085 22 62 104 
-0.056604 0.052830 -0.557484 23 63 103 
-0.055485 0.052963 -0.558890 23 58 100 
-0.054293 0.053030 -0.559596 19 56 100 
-0.053097 0.053097 -0.560303 16 58 103 
-0.051899 0.053165 -0.561013 19 62 108 
-0.050697 0.053232 -0.561724 20 65 110 
-0.049367 0.053165 -0.561013 24 66 110 
-0.048223 0.053299 -0.562437 24 66 110 
-0.046954 0.053299 -0.562437 24 65 108 
-0.045570 0.053165 -0.561013 23 66 109 
-0.044304 0.053165 -0.561013 22 61 105 
-0.043038 0.053165 -0.561013 23 62 101 
-0.041667 0.053030 -0.559596 21 61 101 
-0.040455 0.053097 -0.560303 18 60 103 
-0.039241 0.053165 -0.561013 18 61 104 
-0.038023 0.053232 -0.561724 22 62 108 
-0.036709 0.053165 -0.561013 21 64 111 
-0.035488 0.053232 -0.561724 19 66 112 
-0.034177 0.053165 -0.561013 21 66 110 
-0.032953 0.053232 -0.561724 22 65 112 
-0.031646 0.053165 -0.561013 20 64 111 
-0.030573 0.053503 -0.564586 19 62 107 
-0.029412 0.053708 -0.566752 19 61 106 
-0.028169 0.053777 -0.567478 19 60 104 
-0.026923 0.053846 -0.568205 20 59 102 
-0.025510 0.053571 -0.565306 22 57 99 
-0.024235 0.053571 -0.565306 20 55 98 
-0.022872 0.053367 -0.563151 20 54 94 
-0.021628 0.053435 -0.563868 21 54 94 
-0.020356 0.053435 -0.563868 19 55 96 
-0.019182 0.053708 -0.566752 19 55 98 
-0.017880 0.053640 -0.566028 17 54 98 
-0.016645 0.053777 -0.567478 18 53 97 
-0.015345 0.053708 -0.566752 17 53 96 
-0.014103 0.053846 -0.568205 16 56 101 
-0.012804 0.053777 -0.567478 18 54 102 
-0.011553 0.053915 -0.568935 17 53 98 
-0.010256 0.053846 -0.568205 16 50 94 
-0.008986 0.053915 -0.568935 17 51 94 
-0.007712 0.053985 -0.569666 19 53 95 
-0.006443 0.054124 -0.571134 18 53 95 
-0.005148 0.054054 -0.570399 18 52 94 
-0.003871 0.054194 -0.571871 17 50 91 
-0.002581 0.054194 -0.571871 17 48 88 
-0.001292 0.054264 -0.572610 18 49 89 
0.000000 0.054194 -0.571871 15 49 91 
0.001292 0.054264 -0.572610 16 51 93 
0.002587 0.054334 -0.573351 19 49 88 
0.003881 0.054334 -0.573351 21 47 85 
0.005181 0.054404 -0.574093 20 51 89 
0.006485 0.054475 -0.574838 18 52 94 
0.007792 0.054545 -0.575584 18 50 89 
0.009103 0.054616 -0.576333 19 50 90 
0.010403 0.054616 -0.576333 21 48 88 
0.011658 0.054404 -0.574093 19 47 88 
0.012987 0.054545 -0.575584 20 49 91 
0.014286 0.054545 -0.575584 20 50 88 
0.015645 0.054759 -0.577836 18 49 86 
0.016971 0.054830 -0.578590 19 43 74 
0.018229 0.054688 -0.577083 21 49 84 
0.019481 0.054545 -0.575584 46 68 88 
0.020725 0.054404 -0.574093 93 107 105 
0.021795 0.053846 -0.568205 103 112 105 
0.022814 0.053232 -0.561724 105 112 107 
0.102326 0.195349 -2.061395 102 114 106 
0.105991 0.193548 -2.042396 104 115 108 
0.118721 0.191781 -2.023744 92 106 98 
0.121622 0.189189 -1.996396 88 98 93 
0.126126 0.189189 -1.996396 90 98 93 
0.130045 0.188341 -1.987444 98 106 100 
0.136364 0.190909 -2.014545 98 105 102 
0.138393 0.187500 -1.978572 92 101 99 
0.144144 0.189189 -1.996396 87 99 96 
0.147982 0.188341 -1.987444 89 99 96 
0.149123 0.184211 -1.943860 90 98 95 
0.156951 0.188341 -1.987444 87 96 94 
0.158590 0.185022 -1.952423 75 85 84 
0.165919 0.188341 -1.987444 82 91 86 
0.168142 0.185841 -1.961062 91 100 95 
0.172566 0.185841 -1.961062 89 98 93 
0.118503 0.087318 -0.921414 87 99 108 
0.118852 0.086066 -0.908197 92 102 111 
0.121150 0.086242 -0.910062 98 109 118 
0.122951 0.086066 -0.908197 101 113 122 
0.124236 0.085540 -0.902648 94 105 116 
0.126531 0.085714 -0.904490 78 89 102 
0.128834 0.085890 -0.906339 75 88 100 
0.130612 0.085714 -0.904490 78 89 99 
0.132383 0.085540 -0.902648 74 83 97 
0.134694 0.085714 -0.904490 61 70 87 
0.136179 0.085366 -0.900813 46 55 77 
0.137931 0.085193 -0.898986 47 57 80 
0.139959 0.085193 -0.898986 57 71 90 
0.141129 0.084677 -0.893548 74 89 105 
0.142857 0.084507 -0.891751 102 115 126 
0.144578 0.084337 -0.889960 106 118 124 
0.146293 0.084168 -0.888176 86 97 104 
0.147705 0.083832 -0.884631 66 76 90 
0.150602 0.084337 -0.889960 58 69 87 
0.152305 0.084168 -0.888176 49 62 81 
0.153386 0.083665 -0.882869 43 56 77 
0.155689 0.083832 -0.884631 62 77 94 
0.158635 0.084337 -0.889960 93 112 122 
0.159681 0.083832 -0.884631 108 122 128 
0.162651 0.084337 -0.889960 109 122 129 
0.164659 0.084337 -0.889960 106 121 128 
0.167339 0.084677 -0.893548 108 122 126 
0.168675 0.084337 -0.889960 103 116 121 
0.172414 0.085193 -0.898986 92 103 113 
0.173737 0.084848 -0.895354 66 78 92 
0.177189 0.085540 -0.902648 51 63 81 
0.179226 0.085540 -0.902648 77 86 101 
0.181633 0.085714 -0.904490 77 89 103 
0.183673 0.085714 -0.904490 37 51 76 
0.187629 0.086598 -0.913814 34 45 74 
0.189300 0.086420 -0.911934 31 44 74 
0.386719 0.164062 -1.731250 36 57 66 
0.387597 0.162791 -1.717829 40 60 70 
0.390805 0.160920 -1.698084 32 42 46 
0.392453 0.158491 -1.672453 33 36 34 
0.390335 0.156134 -1.647584 41 45 41 
0.442748 0.160305 -1.691603 36 39 34 
0.420863 0.151079 -1.594245 28 31 27 
0.449057 0.158491 -1.672453 16 19 16 
0.452830 0.158491 -1.672453 14 17 14 
0.488000 0.168000 -1.772800 15 18 18 
0.497976 0.170040 -1.794332 16 20 19 
0.502024 0.170040 -1.794332 18 24 22 
0.464407 0.142373 -1.502373 132 160 164 
0.472603 0.143836 -1.517808 139 166 168 
0.482639 0.145833 -1.538889 148 171 173 
0.486111 0.145833 -1.538889 151 174 176 
0.493007 0.146853 -1.549650 152 176 177 
0.498246 0.147368 -1.555088 157 178 180 
0.505300 0.148410 -1.566078 160 180 184 
0.508834 0.148410 -1.566078 162 182 185 
0.514184 0.148936 -1.571631 164 185 185 
0.515901 0.148410 -1.566078 164 187 188 
0.526502 0.148410 -1.566078 156 180 183 
0.530035 0.148410 -1.566078 152 176 179 
0.583333 0.159091 -1.678788 131 160 166 
0.758294 0.199052 -2.100474 40 48 49 
0.752336 0.196262 -2.071028 34 44 44 
0.757009 0.196262 -2.071028 36 43 42 
0.772512 0.199052 -2.100474 38 43 45 
0.792271 0.202899 -2.141063 37 44 47 
0.781991 0.199052 -2.100474 39 46 46 
0.779343 0.197183 -2.080751 40 47 46 
0.806763 0.202899 -2.141063 43 49 47 
0.823529 0.205882 -2.172549 43 50 49 
0.824390 0.204878 -2.161951 44 50 48 
0.845771 0.208955 -2.204975 48 53 51 
0.863636 0.212121 -2.238384 47 54 53 
0.852217 0.206897 -2.183251 53 60 58 
0.844660 0.203883 -2.151456 56 62 60 
0.810185 0.194444 -2.051852 58 65 63 
0.818605 0.195349 -2.061395 62 68 66 
0.827103 0.196262 -2.071028 66 71 69 
0.824074 0.194444 -2.051852 70 73 71 
0.828704 0.194444 -2.051852 69 74 72 
0.837209 0.195349 -2.061395 71 75 74 
0.750000 0.172131 -1.816393 66 74 71 
0.757202 0.172840 -1.823868 68 74 73 
0.752033 0.170732 -1.801626 70 74 74 
0.736220 0.165354 -1.744882 50 59 58 
0.746032 0.166667 -1.758730 22 27 27 
0.744094 0.165354 -1.744882 15 18 16 
0.745098 0.164706 -1.738039 19 20 18 
0.749020 0.164706 -1.738039 24 26 21 
0.752941 0.164706 -1.738039 29 32 24 
0.753906 0.164062 -1.731250 35 38 30 
0.751938 0.162791 -1.717829 42 43 34 
0.752896 0.162162 -1.711197 42 42 37 
0.768627 0.164706 -1.738039 34 36 32 
0.778656 0.166008 -1.751779 25 28 26 
0.779528 0.165354 -1.744882 20 29 28 
0.786561 0.166008 -1.751779 34 67 76 
0.778626 0.160305 -1.691603 108 169 193 
0.782443 0.160305 -1.691603 107 172 198 
0.780303 0.159091 -1.678788 97 168 197 
0.810606 0.159091 -1.678788 156 180 186 
0.817491 0.159696 -1.685171 162 187 192 
0.818182 0.159091 -1.678788 169 192 197 
0.818868 0.158491 -1.672453 172 194 200 
0.825758 0.159091 -1.678788 173 196 201 
0.839080 0.160920 -1.698084 174 196 203 
0.846154 0.161538 -1.704615 173 197 203 
0.853282 0.162162 -1.711197 171 195 202 
0.853846 0.161538 -1.704615 162 188 196 
0.847909 0.159696 -1.685171 123 145 158 
0.842105 0.157895 -1.666165 89 99 104 
0.839552 0.156716 -1.653731 85 93 91 
0.840149 0.156134 -1.647584 83 92 90 
1.075472 0.198113 -2.090566 84 92 90 
1.095694 0.200957 -2.120574 86 91 90 
1.100478 0.200957 -2.120574 88 94 92 
1.100000 0.200000 -2.110476 87 95 93 
1.110048 0.200957 -2.120574 87 95 94 
1.156863 0.205882 -2.172549 90 96 95 
1.144928 0.202899 -2.141063 90 95 94 
1.144231 0.201923 -2.130769 88 94 93 
1.160194 0.203883 -2.151456 87 93 92 
1.216749 0.206897 -2.183251 84 91 89 
1.169811 0.198113 -2.090566 87 91 89 
1.220588 0.205882 -2.172549 84 90 89 
1.173709 0.197183 -2.080751 81 89 89 
1.212560 0.202899 -2.141063 79 87 86 
1.200000 0.200000 -2.110476 68 74 75 
1.222222 0.202899 -2.141063 72 76 75 
1.215311 0.200957 -2.120574 81 85 84 
1.224880 0.200957 -2.120574 77 84 83 
1.331606 0.217617 -2.296373 77 84 82 
1.343750 0.218750 -2.308333 79 85 83 
1.321429 0.214286 -2.261225 78 86 84 
1.287129 0.207921 -2.194059 88 93 91 
1.311558 0.211055 -2.227136 131 136 131 
1.278049 0.204878 -2.161951 148 158 155 
1.246446 0.199052 -2.100474 149 158 157 
1.251185 0.199052 -2.100474 149 158 157 
-1.370370 0.253086 -2.735803 191 194 193 
-1.355828 0.251534 -2.719018 187 193 191 
-1.358025 0.253086 -2.735803 186 193 191 
-1.351852 0.253086 -2.735803 185 192 189 
-1.345679 0.253086 -2.735803 183 191 187 
-1.339506 0.253086 -2.735803 184 191 188 
-1.350000 0.256250 -2.770000 186 192 189 
-1.335404 0.254658 -2.752795 187 194 190 
-0.317406 0.069966 -0.756314 204 205 201 
-0.315162 0.069847 -0.755026 204 205 201 
-0.310287 0.069140 -0.747386 200 203 198 
-0.506925 0.113573 -1.227701 157 167 170 
-0.515581 0.116147 -1.255524 95 133 158 
-0.180425 0.048349 -0.522642 64 105 143 
-0.179245 0.048349 -0.522642 59 93 125 
-0.179762 0.048810 -0.527619 38 61 83 
-0.178571 0.048810 -0.527619 22 42 66 
-0.175708 0.048349 -0.522642 19 40 61 
-0.174528 0.048349 -0.522642 23 51 84 
-0.176683 0.049279 -0.532692 23 66 109 
-0.172170 0.048349 -0.522642 21 68 110 
-0.170991 0.048349 -0.522642 24 68 113 
-0.169811 0.048349 -0.522642 22 70 116 
-0.168632 0.048349 -0.522642 22 73 119 
-0.167453 0.048349 -0.522642 23 73 118 
-0.166274 0.048349 -0.522642 22 73 119 
-0.166667 0.048810 -0.527619 24 73 120 
-0.165673 0.048868 -0.528248 23 74 121 
-0.164678 0.048926 -0.528878 25 77 123 
-0.163484 0.048926 -0.528878 23 78 124 
-0.162291 0.048926 -0.528878 23 76 123 
-0.161483 0.049043 -0.530144 24 76 123 
-0.160287 0.049043 -0.530144 22 76 124 
-0.159091 0.049043 -0.530144 21 77 124 
-0.158084 0.049102 -0.530778 22 77 123 
-0.157074 0.049161 -0.531415 21 74 120 
-0.155502 0.049043 -0.530144 22 74 122 
-0.154862 0.049220 -0.532053 24 76 124 
-0.153110 0.049043 -0.530144 22 77 128 
-0.152096 0.049102 -0.530778 21 74 123 
-0.151261 0.049220 -0.532053 23 68 111 
-0.150240 0.049279 -0.532692 22 59 99 
-0.148681 0.049161 -0.531415 22 65 110 
-0.148193 0.049398 -0.533976 22 71 120 
-0.146988 0.049398 -0.533976 23 74 122 
-0.145258 0.049220 -0.532053 22 73 122 
-0.144578 0.049398 -0.533976 22 74 122 
-0.143720 0.049517 -0.535266 22 74 124 
-0.142169 0.049398 -0.533976 22 75 126 
-0.141304 0.049517 -0.535266 21 75 123 
-0.140097 0.049517 -0.535266 23 76 123 
-0.139057 0.049577 -0.535913 25 75 122 
-0.135922 0.049757 -0.537864 24 77 124 
-0.135036 0.049878 -0.539173 24 78 122 
-0.133983 0.049939 -0.539829 22 76 121 
-0.132442 0.049818 -0.538518 25 73 120 
-0.131068 0.049757 -0.537864 25 72 119 
-0.129854 0.049757 -0.537864 22 73 118 
-0.128641 0.049757 -0.537864 21 72 120 
-0.127582 0.049818 -0.538518 20 70 121 
-0.126521 0.049878 -0.539173 21 70 121 
-0.125152 0.049818 -0.538518 19 70 123 
-0.124088 0.049878 -0.539173 20 74 125 
-0.123171 0.050000 -0.540488 22 77 126 
-0.121951 0.050000 -0.540488 22 79 128 
-0.120879 0.050061 -0.541148 20 76 124 
-0.119804 0.050122 -0.541809 22 74 121 
-0.118149 0.049939 -0.539829 23 74 122 
-0.117359 0.050122 -0.541809 22 66 113 
-0.115995 0.050061 -0.541148 19 57 100 
-0.114774 0.050061 -0.541148 18 56 104 
-0.113692 0.050122 -0.541809 20 63 114 
-0.113022 0.050369 -0.544472 19 64 114 
-0.111520 0.050245 -0.543137 21 65 112 
-0.110294 0.050245 -0.543137 21 63 109 
-0.109202 0.050307 -0.543804 22 59 101 
-0.108108 0.050369 -0.544472 23 54 93 
-0.107011 0.050431 -0.545141 20 58 101 
-0.105781 0.050431 -0.545141 20 60 103 
-0.104938 0.050617 -0.547161 21 62 107 
-0.103832 0.050680 -0.547837 23 66 111 
-0.102596 0.050680 -0.547837 21 65 109 
-0.101235 0.050617 -0.547161 20 63 108 
-0.100124 0.050680 -0.547837 19 62 108 
-0.098644 0.050555 -0.546486 20 60 111 
-0.096178 0.050555 -0.546486 17 62 110 
-0.094479 0.050307 -0.543804 18 62 110 
-0.093596 0.050493 -0.545813 18 62 111 
-0.092937 0.050805 -0.549195 19 65 115 
-0.090683 0.050932 -0.550559 22 68 118 
-0.089441 0.050932 -0.550559 21 67 115 
-0.088199 0.050932 -0.550559 22 68 116 
-0.086849 0.050868 -0.549876 25 72 118 
-0.085714 0.050932 -0.550559 25 73 119 
-0.084054 0.050680 -0.547837 24 73 118 
-0.083127 0.050868 -0.549876 24 69 118 
-0.081886 0.050868 -0.549876 25 68 118 
-0.080745 0.050932 -0.550559 23 68 116 
-0.079503 0.050932 -0.550559 19 64 113 
-0.078261 0.050932 -0.550559 18 63 110 
-0.076923 0.050868 -0.549876 20 61 110 
-0.075965 0.051059 -0.551930 18 62 111 
-0.074627 0.050995 -0.551244 22 63 111 
-0.073658 0.051186 -0.553308 24 63 105 
-0.072500 0.051250 -0.554000 22 58 99 
-0.071518 0.051443 -0.556085 20 54 94 
-0.070000 0.051250 -0.554000 20 54 93 
-0.068664 0.051186 -0.553308 20 51 91 
-0.067248 0.051059 -0.551930 20 50 89 
-0.066333 0.051314 -0.554693 20 49 91 
-0.065000 0.051250 -0.554000 19 48 90 
-0.063910 0.051378 -0.555389 18 51 95 
-0.062814 0.051508 -0.556784 18 54 100 
-0.061558 0.051508 -0.556784 19 55 102 
-0.060150 0.051378 -0.555389 20 58 103 
-0.059045 0.051508 -0.556784 24 60 105 
-0.057716 0.051443 -0.556085 24 59 104 
-0.056604 0.051572 -0.557484 22 56 101 
-0.055556 0.051768 -0.559596 21 55 100 
-0.054362 0.051833 -0.560303 20 54 95 
-0.053097 0.051833 -0.560303 20 53 94 
-0.051899 0.051899 -0.561013 17 54 100 
-0.050697 0.051965 -0.561724 19 58 104 
-0.049430 0.051965 -0.561724 22 60 102 
-0.048162 0.051965 -0.561724 22 57 100 
-0.047014 0.052097 -0.563151 21 56 100 
-0.045570 0.051899 -0.561013 20 55 98 
-0.044304 0.051899 -0.561013 20 52 93 
-0.043038 0.051899 -0.561013 20 51 90 
-0.041719 0.051833 -0.560303 21 51 90 
-0.040455 0.051833 -0.560303 18 52 94 
-0.039241 0.051899 -0.561013 16 53 98 
-0.038071 0.052030 -0.562437 16 55 99 
-0.036755 0.051965 -0.561724 19 55 98 
-0.035533 0.052030 -0.562437 18 53 95 
-0.034264 0.052030 -0.562437 19 50 86 
-0.033079 0.052163 -0.563868 19 48 81 
-0.031726 0.052030 -0.562437 17 46 81 
-0.030651 0.052363 -0.566028 18 46 83 
-0.029449 0.052497 -0.567478 20 50 86 
-0.028205 0.052564 -0.568205 18 50 89 
-0.026923 0.052564 -0.568205 17 51 91 
-0.025575 0.052430 -0.566752 21 51 93 
-0.024266 0.052363 -0.566028 21 51 92 
-0.022843 0.052030 -0.562437 19 51 93 
-0.021656 0.052229 -0.564586 19 50 91 
-0.020330 0.052097 -0.563151 20 52 96 
-0.019206 0.052497 -0.567478 17 53 96 
-0.017903 0.052430 -0.566752 18 54 98 
-0.016667 0.052564 -0.568205 16 54 99 
-0.015345 0.052430 -0.566752 16 52 96 
-0.014103 0.052564 -0.568205 16 49 93 
-0.012804 0.052497 -0.567478 17 50 95 
-0.011553 0.052632 -0.568935 15 52 96 
-0.010256 0.052564 -0.568205 15 52 92 
-0.009009 0.052767 -0.570399 16 50 93 
-0.007722 0.052767 -0.570399 17 51 93 
-0.006452 0.052903 -0.571871 19 53 96 
-0.005161 0.052903 -0.571871 18 54 98 
-0.003871 0.052903 -0.571871 18 54 95 
-0.002577 0.052835 -0.571134 21 51 94 
-0.001292 0.052972 -0.572610 20 49 90 
0.000000 0.052903 -0.571871 17 48 88 
0.002587 0.053040 -0.573351 17 45 81 
0.003886 0.053109 -0.574093 19 44 78 
0.005181 0.053109 -0.574093 19 47 85 
0.006485 0.053178 -0.574838 17 50 90 
0.007782 0.053178 -0.574838 15 48 86 
0.009103 0.053316 -0.576333 17 52 92 
0.010376 0.053178 -0.574838 18 52 96 
0.011643 0.053040 -0.573351 19 53 94 
0.012987 0.053247 -0.575584 21 53 93 
0.014286 0.053247 -0.575584 20 51 91 
0.015666 0.053525 -0.578590 22 50 88 
0.016971 0.053525 -0.578590 19 43 75 
0.018229 0.053385 -0.577083 21 48 84 
0.019481 0.053247 -0.575584 48 70 90 
0.020725 0.053109 -0.574093 94 107 106 
0.021823 0.052632 -0.568935 101 112 107 
0.022872 0.052097 -0.563151 105 113 108 
0.105505 0.188073 -2.033028 101 114 108 
0.110092 0.188073 -2.033028 104 114 109 
0.111111 0.182222 -1.969778 100 110 106 
0.118182 0.186364 -2.014545 92 105 98 
0.121622 0.184685 -1.996396 87 97 92 
0.126126 0.184685 -1.996396 92 99 94 
0.130045 0.183857 -1.987444 98 105 100 
0.136364 0.186364 -2.014545 96 106 102 
0.138393 0.183036 -1.978572 91 102 99 
0.144144 0.184685 -1.996396 89 99 96 
0.148649 0.184685 -1.996396 88 99 94 
0.149123 0.179825 -1.943860 90 98 94 
0.156951 0.183857 -1.987444 86 96 92 
0.157895 0.179825 -1.943860 76 86 84 
0.165179 0.183036 -1.978572 82 90 86 
0.167401 0.180617 -1.952423 91 100 97 
0.171806 0.180617 -1.952423 90 98 95 
0.118012 0.084886 -0.917598 47 54 73 
0.118609 0.083845 -0.906339 50 57 75 
0.120902 0.084016 -0.908197 58 66 80 
0.124236 0.083503 -0.902648 88 95 106 
0.126273 0.083503 -0.902648 60 68 86 
0.128834 0.083845 -0.906339 52 61 80 
0.130612 0.083673 -0.904490 54 61 80 
0.132114 0.083333 -0.900813 61 65 84 
0.134694 0.083673 -0.904490 63 68 87 
0.136179 0.083333 -0.900813 63 72 85 
0.137931 0.083164 -0.898986 78 87 95 
0.139394 0.082828 -0.895354 95 104 111 
0.141414 0.082828 -0.895354 96 104 111 
0.142285 0.082164 -0.888176 91 99 107 
0.144289 0.082164 -0.888176 76 84 98 
0.146000 0.082000 -0.886400 60 67 84 
0.147410 0.081673 -0.882869 62 69 85 
0.149701 0.081836 -0.884631 74 82 97 
0.151394 0.081673 -0.882869 82 92 103 
0.152778 0.081349 -0.879365 76 89 100 
0.154762 0.081349 -0.879365 83 97 110 
0.158000 0.082000 -0.886400 80 93 106 
0.159046 0.081511 -0.881113 66 74 90 
0.162325 0.082164 -0.888176 58 65 84 
0.164329 0.082164 -0.888176 73 84 96 
0.166667 0.082329 -0.889960 85 96 105 
0.168000 0.082000 -0.886400 48 59 79 
0.172764 0.083333 -0.900813 37 48 75 
0.173387 0.082661 -0.893548 32 43 71 
0.177189 0.083503 -0.902648 33 44 71 
0.179226 0.083503 -0.902648 69 78 95 
0.187243 0.084362 -0.911934 29 42 72 
0.189691 0.084536 -0.913814 26 43 69 
0.388235 0.160784 -1.738039 34 54 66 
0.389105 0.159533 -1.724514 38 59 70 
0.390805 0.157088 -1.698084 30 44 48 
0.397683 0.158301 -1.711197 28 33 31 
0.392453 0.154717 -1.672453 31 36 32 
0.441065 0.155894 -1.685171 36 38 31 
0.419355 0.146953 -1.588531 27 32 24 
0.449057 0.154717 -1.672453 16 20 16 
0.452830 0.154717 -1.672453 15 16 15 
0.486056 0.163347 -1.765737 15 19 17 
0.495968 0.165323 -1.787097 16 20 18 
0.500000 0.165323 -1.787097 20 24 22 
0.502008 0.164659 -1.779920 43 43 40 
0.464407 0.138983 -1.502373 134 162 167 
0.472603 0.140411 -1.517808 140 166 170 
0.480969 0.141869 -1.533564 145 170 173 
0.484429 0.141869 -1.533564 149 173 175 
0.491289 0.142857 -1.544251 150 174 175 
0.494774 0.142857 -1.544251 152 174 177 
0.496528 0.142361 -1.538889 155 178 179 
0.496552 0.141379 -1.528276 158 181 183 
0.510563 0.144366 -1.560563 163 185 186 
0.514085 0.144366 -1.560563 165 188 189 
0.530035 0.144876 -1.566078 153 177 180 
0.583333 0.155303 -1.678788 130 161 166 
0.758294 0.194313 -2.100474 43 48 48 
0.755869 0.192488 -2.080751 38 44 45 
0.760563 0.192488 -2.080751 37 43 42 
0.772512 0.194313 -2.100474 38 44 43 
0.803922 0.200980 -2.172549 38 44 44 
0.825000 0.205000 -2.216000 39 45 46 
0.761468 0.188073 -2.033028 40 47 47 
0.835000 0.205000 -2.216000 41 49 46 
0.823529 0.200980 -2.172549 43 49 48 
0.820388 0.199029 -2.151456 44 50 49 
0.845771 0.203980 -2.204975 45 52 52 
0.855000 0.205000 -2.216000 46 54 53 
0.852217 0.201970 -2.183251 52 58 56 
0.844660 0.199029 -2.151456 55 60 59 
0.806452 0.188940 -2.042396 57 63 62 
0.814815 0.189815 -2.051852 60 67 64 
0.823256 0.190698 -2.061395 64 69 68 
0.816514 0.188073 -2.033028 66 72 71 
0.824885 0.188940 -2.042396 66 74 72 
0.833333 0.189815 -2.051852 67 76 72 
0.822727 0.186364 -2.014545 70 74 73 
0.754098 0.168033 -1.816393 70 75 72 
0.752033 0.166667 -1.801626 70 76 74 
0.743083 0.162055 -1.751779 27 34 36 
0.747036 0.162055 -1.751779 15 18 15 
0.745098 0.160784 -1.738039 17 19 15 
